103.12723        104.21882        131.15800
106.38741        119.94318        199.87091
105.17891        125.21190        164.44719
110.44090        117.79439        118.47475
110.00905        119.14590        160.83078
112.91512        125.99055        179.37535
110.83483        128.38281        192.67270
109.87283        105.92611        156.21024
120.34496        101.62924        148.78992
117.46175        119.84414        159.62358
118.52321        130.11288        86.34328
123.51941        128.02356        156.60727
128.39142        122.79475        166.47391
133.03735        127.56677        184.66425
134.29720        135.27660        161.59477
135.93323        118.32474        185.25786
142.84854        146.67178        191.98975
146.62657        112.21069        123.23083
147.85916        115.25349        159.64755
145.97612        136.38040        195.56978
150.23390        139.91458        199.60709
155.45259        116.68079        148.07294
159.35197        125.25365        190.37177
154.83151        141.02762        107.86561
159.38654        147.13785        191.56300
150.97075        145.50909        175.73409
166.05583        146.18771        174.66287
173.92430        128.13611        122.33491
175.85744        126.41458        156.16508
171.46526        134.93713        155.66855
177.21434        139.33015        170.00185
174.54184        141.08118        204.42566
172.73428        146.43788        134.11029
181.22495        131.54376        171.08943
186.53609        142.45059        99.32154
188.60097        154.92021        171.50414
184.58563        154.77113        124.02597
190.42435        146.62996        106.37999
191.44356        157.79759        153.20752
190.44427        130.12924        139.98428
191.15863        140.54179        139.31102
195.54576        147.95119        164.92548
196.34669        139.34399        155.21434
192.23671        154.56606        118.93696
198.47913        133.14931        149.55377
205.01788        144.81769        145.49174
215.26993        149.48416        150.45224
