85.90211        155.34830        100.29645
83.06190        153.43567        109.28928
79.93399        166.73669        106.59055
87.39151        116.65431        107.51035
89.61082        148.83922        128.53198
85.69318        155.83894        116.23906
86.80568        157.98561        136.19295
92.09177        159.46272        104.65494
87.46976        161.50575        126.22068
97.61067        131.35675        125.79568
92.35818        149.99417        105.19230
104.33244        108.65141        108.75031
94.52258        123.03036        110.24771
98.34837        125.18077        117.69077
103.78632        133.81113        114.26804
105.00539        147.62126        129.63425
100.43518        146.60086        126.52845
101.04070        156.81676        116.24043
96.50594        156.46025        136.80864
94.17738        165.00414        125.32646
105.31326        104.01124        78.71841
103.20772        112.46982        121.04089
105.83130        115.25580        104.80470
111.15999        120.74772        103.43959
103.83440        135.78598        125.62000
105.51295        145.29829        143.40022
104.66838        188.01401        153.03967
110.07159        94.50529        95.14345
107.42966        97.74483        86.74802
105.31355        108.12106        95.10664
113.45145        133.96996        138.56897
108.03286        135.89896        103.76998
109.06002        152.12292        148.11926
106.82332        159.66789        127.94604
108.82177        166.85567        127.56686
110.30888        168.50836        137.17474
113.59202        101.98708        97.28502
114.80086        102.93851        120.96593
113.79414        154.80618        122.72578
115.84357        163.58128        136.52914
112.40945        173.52394        157.13254
117.61639        169.35429        171.04845
110.98662        188.99269        160.13774
115.30582        195.58209        159.38972
124.12615        102.24481        97.87395
119.50160        97.83854        115.38218
118.82864        107.20378        115.83238
124.71501        116.81087        116.32424
116.48884        121.09167        124.79346
118.74016        123.41845        106.07393
114.56485        138.02966        121.74149
119.87286        155.28993        114.46523
120.29659        152.92618        154.95877
118.29314        159.67752        164.44400
118.55173        158.14725        150.90903
117.62045        164.05577        158.10788
117.96268        169.02940        130.52803
116.13409        176.31453        138.06313
120.00908        176.54581        157.36562
116.27454        188.55696        154.50374
118.39032        101.91776        106.75734
126.10274        103.60220        120.53048
122.56044        116.84929        130.09834
127.83676        109.77435        114.40721
127.59633        167.77164        149.39511
132.68394        132.93407        108.93889
133.21034        124.73882        125.40381
124.46539        140.10106        127.64776
127.33047        145.90004        118.71101
128.62515        143.31863        161.21942
126.80264        157.22476        148.48499
126.32185        157.03023        129.19470
128.45927        158.45622        163.22717
129.33365        168.22476        139.65265
127.92916        169.21106        158.03508
137.88680        92.19053        109.66948
132.26584        109.60961        101.93341
137.80667        131.75795        117.84309
135.02393        136.21539        127.27785
137.23468        140.74255        163.52315
132.18312        151.11424        114.67857
131.26782        152.29012        137.15540
132.85753        161.84326        143.34599
138.09651        164.28195        160.19777
143.27437        90.23967        118.38829
138.48055        124.60809        107.40302
140.58978        150.96175        134.63802
146.45099        154.62531        171.49135
143.27594        156.06381        156.61819
146.55322        109.12450        132.24994
146.83168        111.58972        140.87529
144.12848        116.62268        132.97180
140.09868        134.99448        147.05019
145.77718        143.54587        184.11661
144.48465        148.02716        146.93971
155.49249        145.95647        148.62538
144.91153        164.49200        132.39497
152.92787        87.85122        110.78619
148.62521        115.79066        119.79855
149.87131        143.10193        130.12514
148.65935        133.75484        134.20003
155.12814        137.04312        146.30548
150.36826        137.90878        169.20538
154.78732        138.64229        158.31752
151.58348        149.21167        178.62233
154.53169        106.96592        132.73288
156.03076        114.73432        126.50797
155.42815        112.92026        151.27638
153.04520        136.70967        113.68018
152.89349        130.66431        164.87964
157.47203        128.03680        167.16512
158.24191        130.45796        181.89011
157.61525        138.16228        180.84906
156.02957        150.72659        138.83760
152.37006        161.78304        156.21521
155.42909        161.93910        166.21867
155.46834        97.11552        106.25547
162.95848        104.38336        143.97189
158.58752        108.03774        112.72934
157.36621        107.80547        122.38527
162.72720        117.83045        112.93765
161.25244        113.80315        136.28229
173.92603        129.85533        150.01215
157.29280        119.28076        158.39842
157.36090        129.47932        120.93140
162.27563        134.21388        137.53836
156.62369        142.79237        121.65823
160.02016        147.87534        171.49721
158.06097        158.53511        146.00443
156.78340        164.53668        183.96855
165.11769        95.50937        117.56677
163.89195        101.01341        123.66751
166.17924        104.65140        134.28738
166.72339        110.79327        158.77022
164.22099        117.98871        121.05212
167.86195        135.59250        114.41266
167.93404        137.86987        133.02451
172.48071        146.39508        152.71750
160.20325        135.00459        167.47937
172.39279        88.43092        114.96946
168.62408        96.23038        153.67342
169.85255        99.16393        112.24187
174.91783        105.71626        149.60954
169.94913        125.40706        119.88058
167.43387        125.68185        158.49072
167.82886        146.46956        137.73991
169.23288        161.46992        188.72626
174.31184        110.30745        127.91145
178.73120        111.55405        170.70078
166.40858        136.06932        156.80275
178.50304        124.97870        151.06761
181.38925        117.82759        160.62274
187.09930        107.84879        164.10934
