81.94089        135.72409        189.29387
97.01343        120.81486        189.02798
96.70284        134.18358        190.86497
88.57846        143.88727        195.31784
102.24827        157.71654        188.14661
95.80894        130.32896        156.09146
88.38686        133.74202        151.78075
102.03565        127.10971        194.09485
96.04427        144.01059        190.04819
95.73669        123.32067        166.57809
93.51513        150.69182        194.31006
96.83363        157.37962        177.43030
96.44740        169.27975        181.26956
96.87376        95.42184        182.61562
99.17350        106.95398        189.13490
98.45691        116.36456        178.03851
106.86787        101.76939        191.46359
105.53127        116.91638        192.95416
110.76878        126.13427        166.44246
97.61382        136.94801        182.94019
108.30583        127.04709        151.43486
104.99447        160.71722        160.77078
112.84964        181.29681        186.92719
104.91787        178.93690        186.83281
118.91640        92.03986        187.74034
110.76342        100.85610        180.91382
112.19685        122.27223        182.89801
113.19904        162.85510        175.35172
110.85810        168.93269        191.09978
122.02528        108.91089        154.27702
116.28960        102.21424        196.11874
115.15115        140.42551        186.58459
111.84062        156.97256        164.94481
115.96093        158.87383        185.41809
113.74134        155.89178        194.44458
118.21574        158.39859        171.76788
117.20564        172.43915        184.61000
110.91324        174.65579        186.04504
120.40828        98.08456        189.26059
118.36741        112.77371        190.98909
120.15493        114.91093        169.60809
118.29471        113.74117        178.19867
120.41591        145.70078        178.70657
120.95543        148.75565        187.97900
114.41787        160.23137        152.69234
126.75030        94.24029        170.92847
127.46085        100.88857        182.34508
132.85286        106.85645        170.94902
128.25703        104.78468        193.44656
127.43422        112.30928        185.03864
127.89204        148.83066        173.44154
123.39159        170.89140        192.66559
124.35521        86.06022        185.04181
130.87474        177.38503        185.77921
133.79829        90.17031        185.60539
138.86105        88.84126        196.44482
137.71317        172.37543        178.27324
137.19850        162.86678        190.91176
137.92174        180.43336        184.75836
140.04726        78.90839        185.31920
140.87096        98.27521        185.84795
138.29465        113.42237        189.32941
147.45523        91.28615        184.66356
146.13120        109.46826        153.85188
153.05074        107.14031        191.09445
153.26073        141.00293        193.02631
148.77995        155.58023        184.19231
152.21997        88.08983        191.73485
145.51538        88.56078        193.40459
144.79126        100.04946        176.27524
152.07025        103.23323        165.42123
150.80826        114.91930        193.70778
146.36476        142.78766        171.81898
156.54228        167.71822        192.60834
156.89543        166.14468        186.42972
143.56770        166.10939        159.79160
148.05690        178.71529        182.71394
155.28047        78.94922        186.62343
157.39691        103.30451        147.87335
160.12115        115.15856        184.03569
154.89728        132.91978        154.76801
156.98128        141.32465        178.56279
152.88663        161.86690        176.86209
154.30370        164.60658        152.79477
153.76021        169.26294        148.86264
160.72061        168.15465        178.60172
157.48380        88.86976        179.46657
163.50336        98.28655        151.35016
159.63675        98.19652        161.10715
163.28859        103.02760        185.96007
157.45110        109.19886        175.55455
169.99541        137.78491        188.36549
165.55223        112.59216        189.34200
173.51578        143.76147        165.96005
161.59563        147.46872        170.61880
160.04453        153.44507        187.96753
160.41454        176.77696        184.76888
171.79248        98.26070        185.22623
172.83458        104.84222        181.56013
175.12125        117.87730        185.28525
162.86771        126.25346        181.81084
167.40521        125.59969        193.28539
170.42751        136.25389        156.87468
166.28304        155.39090        194.56888
166.90132        166.17819        185.94041
173.40524        151.86082        185.49606
184.28729        130.17967        185.02887
173.19568        143.99300        151.47403
