61.26969        78.96682        77.14931
66.06102        76.65802        87.59484
66.52522        59.44671        91.47474
66.59547        73.91164        78.99667
65.22015        86.01810        124.85252
73.41338        87.46111        130.23383
78.16615        55.59032        115.72330
72.47173        79.06371        152.07690
74.26584        55.09885        92.20592
82.36401        48.86286        103.34959
80.47594        69.19405        103.39769
81.14836        68.60207        117.81279
80.38295        81.82027        115.67131
80.17960        71.26661        127.36759
80.06038        71.02460        140.38977
80.34936        85.12863        124.16189
95.78109        57.63279        94.02764
88.65578        68.98866        137.97113
91.61122        74.37143        102.51382
89.93251        88.45693        125.12698
94.98641        57.67664        123.15866
96.26127        76.57178        124.15993
96.11227        83.15157        139.59094
96.50156        96.43423        123.12040
97.86762        72.49778        144.01054
98.16570        88.33098        130.58238
102.62715        70.16100        134.98430
108.79276        97.67970        144.35472
98.33397        91.26778        154.23781
113.33221        59.24801        104.42826
108.19585        72.15929        110.53445
122.75345        83.14761        140.98332
114.77534        89.68890        148.85326
115.15583        71.18669        126.67184
118.96288        97.87032        118.95356
115.65404        98.02126        128.78694
125.61076        92.98555        149.19841
131.21042        72.91831        122.24480
129.77264        75.64086        132.66093
128.87805        78.19631        72.04716
127.40412        99.23736        122.12210
128.87389        102.54747        107.23406
138.62794        79.08501        106.30406
133.48737        81.93423        151.41719
132.15685        87.58897        65.92829
131.52600        85.79863        131.92473
134.07933        93.55492        123.89986
133.92723        98.05340        153.84775
131.65955        91.14106        160.04630
128.80087        107.04521        146.51816
131.10384        112.42138        99.26355
130.26147        111.77503        153.00037
144.40152        95.08450        61.23761
142.94289        97.33556        85.02982
133.54407        97.80184        86.40993
136.77057        99.18213        56.44181
135.41835        105.73440        70.30099
135.12854        103.12753        79.57694
143.92363        112.34679        140.85365
142.91632        107.49370        150.84157
135.89253        113.18175        146.64285
145.88936        79.95665        96.38954
140.63329        90.85064        64.07606
147.03609        89.57627        89.60601
144.80995        109.48544        116.14835
146.45497        108.62955        74.49059
154.07637        101.31542        111.27208
151.79599        91.07335        108.47620
151.59183        103.38850        121.51093
165.51944        104.68828        100.69423
171.51624        91.21027        113.33360
171.62074        99.24716        103.75861
