44.61748        68.87701        98.14322
42.45704        61.72154        105.66734
48.02122        67.79971        92.22871
50.47549        53.74678        96.34426
52.75745        79.56272        90.83884
58.36587        69.12763        80.05592
57.69423        65.88535        95.71771
65.69405        80.09929        75.09895
72.55292        92.15495        137.36702
66.15721        59.11268        95.09565
61.64915        78.98103        83.22263
63.52591        120.73962        110.30575
72.67626        127.45058        126.23573
66.86243        65.04289        110.44969
73.33907        59.27276        119.01881
66.35318        76.18298        96.92336
69.64516        69.13342        123.88255
70.83757        68.67911        157.21333
65.88940        73.86623        112.43902
67.06373        70.82214        134.49815
71.61705        85.14149        147.66615
68.95657        76.25667        159.07111
68.26716        79.58577        121.77402
67.70912        80.87074        89.40447
82.14719        134.67751        127.14117
76.57071        58.78794        92.93108
74.15177        75.28408        85.62767
72.15547        67.98948        143.36023
68.79293        87.53738        125.51944
75.36116        112.44337        87.72787
69.32358        104.76946        96.88315
76.22525        107.70770        104.03019
82.40256        111.86727        120.46319
78.17191        107.75575        133.07823
87.22562        49.41413        90.07948
76.27730        60.76854        82.71915
83.30177        57.04431        108.41659
76.67973        72.08231        80.23740
76.21772        72.80182        96.84612
71.50436        69.35717        106.02290
81.15713        68.53685        120.48273
80.55525        79.14271        112.80102
82.28530        73.93706        128.80608
81.24877        79.59106        133.39819
83.26363        69.62840        142.53317
77.67665        84.28572        154.54922
72.50906        85.88965        95.87904
84.55767        90.37294        134.85654
90.55405        131.40091        131.95351
82.33549        59.86952        75.30672
100.70643        56.02666        90.14842
83.13406        59.82040        65.36066
95.27280        62.82170        102.50602
88.01842        61.58961        138.74902
85.26142        66.62997        129.25395
90.15720        66.33655        134.20442
80.39716        76.08368        92.69199
91.05473        74.15581        103.22105
78.77367        72.45863        151.27115
86.46489        82.18372        117.12617
87.15356        115.60210        71.48856
89.36393        116.59911        125.58094
88.05849        120.44579        138.67068
85.85385        60.90053        57.33195
90.79668        67.70826        93.60432
92.41454        60.77374        121.80010
87.97832        84.73216        49.44446
99.26911        118.92257        127.14387
87.58577        130.30690        71.49155
98.50889        45.08829        107.49096
92.56435        56.88015        71.14822
97.47834        64.41232        61.02000
101.47382        67.09898        84.32249
94.34665        67.92085        53.43943
94.64820        75.67774        73.97322
90.72925        70.55474        73.29860
91.30444        76.93851        140.04070
94.72887        88.39747        122.91527
94.08729        85.61502        137.26561
107.75079        99.41464        137.51886
96.83604        117.27367        137.91560
106.18195        123.17031        123.07156
110.57535        57.03989        86.92078
97.43402        54.09702        124.96402
105.94897        69.35054        133.74886
99.37684        79.75410        144.65970
104.57822        84.16142        114.54242
103.55260        90.64438        138.74402
99.59468        89.35478        128.93095
95.45090        134.90189        67.26489
114.03884        140.74130        80.04136
101.70229        129.08278        132.81744
115.24731        63.53183        80.74758
106.35330        62.53917        113.36666
106.82951        64.98494        72.51340
104.59518        71.21999        106.57028
102.78719        79.98398        52.22652
97.02272        75.93570        136.66100
98.30167        89.36401        43.40329
114.81754        122.25730        78.17819
103.55894        137.36659        68.29952
105.27750        122.82561        71.56940
112.27150        50.51588        104.91561
113.13181        55.35678        96.20766
112.00639        52.06453        116.80507
108.49737        70.21712        116.53659
103.43049        71.57783        142.46014
112.11295        90.54237        125.23174
118.66294        83.64630        133.04848
119.64692        79.78191        148.87195
109.02656        88.38409        145.82733
111.25891        96.35759        151.41698
113.15553        133.49023        125.21687
113.72576        62.04056        107.23315
114.31930        77.06094        102.08728
111.08257        76.65918        130.03569
116.20097        92.56747        72.81496
118.56512        106.82426        67.33764
121.85199        118.96284        73.91210
133.23216        127.58399        89.43820
121.38711        126.03616        93.48067
122.93740        76.01469        105.42482
114.72884        80.86967        62.60171
126.46040        83.68904        139.49271
120.06047        97.54019        62.98816
128.64142        99.85850        129.91153
119.00777        94.22173        143.81731
121.81222        97.85097        71.01711
115.61802        104.89324        125.12927
116.19179        103.47218        142.91808
117.61329        142.05446        88.52032
123.31635        66.07704        121.13139
121.01321        73.79218        133.72055
123.73412        90.53053        152.14491
122.29839        127.39249        111.93673
121.79623        138.40965        108.80727
128.31499        71.83949        132.12090
131.23090        78.92682        77.21706
128.06227        81.84111        69.54507
134.09288        78.64732        114.94131
130.22235        85.57324        56.99309
126.79382        87.51749        108.04169
130.42502        97.54642        105.36620
122.01996        141.28899        98.39019
138.72302        82.38021        148.63176
135.27913        98.08964        51.45848
144.95236        109.06668        115.03877
132.62158        111.45652        98.33520
132.07112        129.80138        103.52930
131.57524        134.37257        96.03524
134.93399        91.73850        157.12740
134.89722        85.65757        51.91743
136.60555        82.03905        90.29813
142.02356        99.23004        101.10290
137.74876        99.64715        67.56006
138.30304        91.77650        74.31316
142.29832        89.45076        115.21507
138.93181        104.56005        98.22348
142.85905        100.22804        115.63875
140.88004        102.01834        84.10066
140.13654        106.68614        125.37877
137.05856        86.12179        129.00897
145.11496        79.43113        103.20067
142.00418        88.32921        58.26106
151.32063        90.04427        96.93532
142.73152        90.33189        87.07233
139.87915        91.49495        106.40402
141.38425        95.39593        42.43130
151.67178        101.44880        123.96539
139.14662        109.62286        65.57841
146.68193        110.56787        107.75600
148.03458        87.47141        43.65536
150.48990        100.96111        65.16884
146.42792        106.94402        74.29184
155.95618        90.82483        109.14828
167.04779        99.17380        104.34404
172.45435        90.41168        114.27784
